# .PCD v0.7 - Point Cloud Data file format
VERSION 0.7
FIELDS x y z
SIZE 4 4 4
TYPE F F F
COUNT 1 1 1
WIDTH 1527
HEIGHT 1
VIEWPOINT 0 0 0 1 0 0 0
POINTS 1527
DATA ascii
0.067088 -0.29988 -1.8878
0.070270002 -0.29999 -1.8885
0.073454998 -0.3001 -1.8892
0.076642998 -0.30021 -1.8899
0.079735003 -0.30015999 -1.8896
0.082826003 -0.30011001 -1.8893
0.085711002 -0.29975 -1.887
0.088693 -0.29955 -1.8857
0.092202 -0.30012 -1.8893
0.094860002 -0.29944 -1.885
0.098163001 -0.29969999 -1.8867
0.0018612 -0.29819 -1.8879
0.0050065001 -0.29831001 -1.8887
0.0080957003 -0.29829001 -1.8885
0.011307 -0.29857001 -1.8903
0.014399 -0.29854 -1.8901
0.01749 -0.29850999 -1.8899
0.020648001 -0.29863 -1.8907
0.023809001 -0.29876 -1.8915
0.026833 -0.29857001 -1.8903
0.029925 -0.29853001 -1.8901
0.032942999 -0.29833999 -1.8889
0.036332998 -0.29892999 -1.8926001
0.039505001 -0.29905 -1.8934
0.042367 -0.29854 -1.8902
0.045379002 -0.29835001 -1.8889
0.048549999 -0.29846999 -1.8897001
0.051640999 -0.29843 -1.8894
0.054988001 -0.29885 -1.8921
0.057907999 -0.2985 -1.8899
0.061177 -0.29877001 -1.8916
0.064181 -0.29857001 -1.8903
0.06718 -0.29837 -1.8891
0.070175998 -0.29817 -1.8878
0.073358998 -0.29828 -1.8885
0.076448001 -0.29822999 -1.8882
0.079735003 -0.29848999 -1.8898
0.083129004 -0.29890999 -1.8925
0.086223997 -0.29886001 -1.8922
0.089215003 -0.29865 -1.8909
0.092308 -0.29859999 -1.8904999
0.095292002 -0.29840001 -1.8892
0.098491997 -0.2985 -1.8899
0.0022517 -0.29725 -1.8951
0.0053516999 -0.29721999 -1.895
0.0081550004 -0.29642001 -1.8898
0.011307 -0.29653999 -1.8906
0.014399 -0.29651001 -1.8904999
0.017555 -0.29664001 -1.8911999
0.020648001 -0.29661 -1.891
0.024013 -0.29719001 -1.8947999
0.026833 -0.29653999 -1.8906
0.030211 -0.29712999 -1.8944
0.032942999 -0.29631999 -1.8892
0.036332998 -0.2969 -1.8929
0.039429002 -0.29686001 -1.8927
0.042838 -0.29743999 -1.8964
0.045699 -0.29694 -1.8932
0.048877999 -0.29706001 -1.8939
0.051892001 -0.29686001 -1.8927
0.055073 -0.29697999 -1.8934
0.058169998 -0.29694 -1.8932
0.061622001 -0.29751 -1.8968
0.064634003 -0.29730999 -1.8956
0.06718 -0.29633999 -1.8894
0.070270002 -0.29629999 -1.8891
0.073934004 -0.29718 -1.8947001
0.077326 -0.29758999 -1.8974
0.080132 -0.29708001 -1.8941
0.083230004 -0.29703999 -1.8938
0.086223997 -0.29683 -1.8925
0.089423999 -0.29694 -1.8932
0.092626996 -0.29703999 -1.8938
0.095615998 -0.29683 -1.8925
0.098820999 -0.29694 -1.8932
0.0022517 -0.29556 -1.8954
0.0054668002 -0.29584 -1.8972
0.0084512997 -0.29550001 -1.895
0.011429 -0.29516 -1.8929
0.014399 -0.29482999 -1.8907
0.017555 -0.29495001 -1.8915
0.020648001 -0.29492 -1.8913
0.023945 -0.29534999 -1.8941
0.027251 -0.29578 -1.8968
0.030354001 -0.29574001 -1.8966
0.033309001 -0.29539999 -1.8944
0.036332998 -0.29521 -1.8932
0.039581999 -0.29548001 -1.8949
0.042681001 -0.29545 -1.8947001
0.045940001 -0.29571 -1.8964
0.049205001 -0.29598001 -1.8981
0.052393999 -0.29609999 -1.8989
0.055243999 -0.2956 -1.8957
0.058169998 -0.29525 -1.8934
0.061533 -0.29567 -1.8961
0.064723998 -0.29578 -1.8968
0.067827001 -0.29572999 -1.8965
0.071211003 -0.29615 -1.8992
0.074221998 -0.29595 -1.8979
0.077326 -0.29589999 -1.8976001
0.080031998 -0.29524001 -1.8934
0.083230004 -0.29534999 -1.8941
0.086121999 -0.29499 -1.8918
0.089529 -0.29539999 -1.8944
0.092733003 -0.29550001 -1.8951
0.095831998 -0.29545 -1.8947001
0.099370003 -0.29600999 -1.8983001
0.0022517 -0.29366001 -1.8957
0.0055817999 -0.29425001 -1.8995
0.0085698999 -0.29391 -1.8973
0.011673 -0.29387999 -1.8971
0.014712 -0.29370001 -1.8959
0.017813001 -0.29367 -1.8958
0.021044999 -0.29394999 -1.8975
0.024148 -0.29391 -1.8973
0.027321 -0.29403001 -1.8981
0.030497 -0.29414999 -1.8989
0.033822 -0.29458001 -1.9016
0.036706999 -0.29407999 -1.8983999
0.039965 -0.29435 -1.9001
0.042916 -0.29401001 -1.8979
0.046100002 -0.29412001 -1.8987
0.049369 -0.29438999 -1.9004
0.052476998 -0.29435 -1.9001
0.055500001 -0.29416001 -1.8989
0.058431 -0.29381001 -1.8967
0.061622001 -0.29392001 -1.8974
0.064815 -0.29403001 -1.8981
0.068011001 -0.29414001 -1.8988
0.071116999 -0.29409999 -1.8985
0.074221998 -0.29405001 -1.8982
0.077326 -0.29401001 -1.8979
0.080430001 -0.29396001 -1.8976001
0.083633997 -0.29405999 -1.8983001
0.086737998 -0.29401001 -1.898
0.089947 -0.29412001 -1.8986
0.092839003 -0.29376 -1.8963
0.096263997 -0.29416999 -1.899
0.099150002 -0.29381001 -1.8967
0.0025307001 -0.29251 -1.9009
0.0055817999 -0.29233 -1.8997999
0.0087476997 -0.29245999 -1.9006
0.011795 -0.29227999 -1.8994
0.014963 -0.2924 -1.9002
0.018006001 -0.29222 -1.899
0.021178 -0.29234001 -1.8997999
0.024284 -0.29231 -1.8996
0.027391 -0.29227 -1.8994
0.030424999 -0.29209 -1.8982
0.033601999 -0.29221001 -1.8989
0.037007 -0.29278001 -1.9026
0.040119 -0.29273999 -1.9024
0.043072999 -0.2924 -1.9002
0.046179999 -0.29236001 -1.9
0.049369 -0.29247999 -1.9007
0.052561 -0.29258999 -1.9014
0.055755999 -0.29269999 -1.9021
0.058867 -0.29266 -1.9019001
0.062155001 -0.29291999 -1.9036
0.065268002 -0.29288 -1.9033
0.068287998 -0.29268 -1.902
0.071211003 -0.29234001 -1.8997999
0.074317001 -0.29229 -1.8995
0.077619001 -0.29255 -1.9012001
0.080628 -0.29234999 -1.8999
0.084037997 -0.29276001 -1.9025
0.087149002 -0.29271001 -1.9022
0.090259999 -0.29266 -1.9019001
0.093477003 -0.29276001 -1.9025
0.096588001 -0.29271001 -1.9022
0.099478997 -0.29234999 -1.8999
0.0025865 -0.29054001 -1.9022
0.0057544 -0.29067001 -1.903
0.0089255003 -0.29078999 -1.9038
0.012222 -0.29122001 -1.9066
0.015277 -0.29104 -1.9054
0.018393001 -0.29100999 -1.9052
0.021443 -0.29082 -1.9040999
0.024488 -0.29064 -1.9029
0.02753 -0.29045999 -1.9017
0.030711001 -0.29058 -1.9024
0.033968002 -0.29084 -1.9042
0.036931999 -0.29051 -1.902
0.040119 -0.29062 -1.9026999
0.043152001 -0.29043001 -1.9015
0.046340998 -0.29054999 -1.9023
0.049205001 -0.29006001 -1.899
0.052393999 -0.29017001 -1.8997999
0.055670999 -0.29043001 -1.9015
0.059128001 -0.29099 -1.9052
0.062421001 -0.29124999 -1.9069
0.065540001 -0.29121 -1.9066
0.068195999 -0.29041001 -1.9014
0.071399003 -0.29052001 -1.9021
0.074605003 -0.29063001 -1.9028
0.078009002 -0.29102999 -1.9054
0.081024997 -0.29082999 -1.9040999
0.084239997 -0.29093999 -1.9048001
0.087559998 -0.29119 -1.9065
0.090783 -0.29128999 -1.9071
0.093795002 -0.29109001 -1.9058
0.096804 -0.29089001 -1.9045
0.099918 -0.29084 -1.9042
0.0028097001 -0.28946999 -1.9064
0.0060995999 -0.28988999 -1.9092
0.0092219003 -0.28986999 -1.909
0.012405 -0.28999001 -1.9098001
0.015403 -0.28966001 -1.9076999
0.018522 -0.28963 -1.9075
0.021575 -0.28944999 -1.9062999
0.024623999 -0.28927001 -1.9051
0.027809 -0.28938001 -1.9059
0.03114 -0.28979999 -1.9086
0.034260999 -0.28977001 -1.9084001
0.037307002 -0.28957999 -1.9072
0.040424999 -0.28955001 -1.9069
0.043308001 -0.28906 -1.9037
0.046661001 -0.28946999 -1.9065
0.049532998 -0.28898999 -1.9032
0.052728001 -0.28909999 -1.904
0.056097999 -0.28951001 -1.9067
0.059477001 -0.28990999 -1.9094
0.062866002 -0.29032001 -1.9119999
0.065993004 -0.29028001 -1.9118
0.069026999 -0.29008999 -1.9105
0.072058 -0.28988999 -1.9092
0.075276002 -0.28999999 -1.9099
0.078497 -0.29010001 -1.9105999
0.081620999 -0.29005 -1.9103
0.084441997 -0.28955999 -1.9069999
0.087458 -0.28935999 -1.9057
0.090677999 -0.28946 -1.9064
0.093795002 -0.28941 -1.9061
0.0029770001 -0.28808999 -1.9097
0.0061571999 -0.28821 -1.9105
0.0093997 -0.28848001 -1.9123
0.012527 -0.28845 -1.9121
0.015779 -0.28872001 -1.9139
0.018844999 -0.28854001 -1.9127001
0.021840001 -0.28821 -1.9105
0.02476 -0.28773001 -1.9073
0.028018 -0.28799999 -1.9091001
0.03114 -0.28797001 -1.9089
0.034260999 -0.28793001 -1.9087
0.037307002 -0.28775001 -1.9074
0.040578999 -0.28801 -1.9092
0.043701001 -0.28797999 -1.9089
0.046982002 -0.28823999 -1.9107
0.050025001 -0.28805 -1.9094
0.053146999 -0.28801 -1.9092
0.056267999 -0.28797001 -1.9089
0.059737999 -0.28852999 -1.9126
0.062866002 -0.28848001 -1.9123
0.065993004 -0.28843999 -1.9119999
0.069119997 -0.28839999 -1.9118
0.072246 -0.28836 -1.9115
0.075370997 -0.28830999 -1.9112
0.078300998 -0.28797001 -1.9089
0.081522003 -0.28806999 -1.9096
0.084643997 -0.28802001 -1.9093
0.087765999 -0.28797999 -1.909
0.090887003 -0.28793001 -1.9086
0.097236 -0.28797999 -1.909
0.0030886 -0.28648999 -1.9119
0.0062147002 -0.28646001 -1.9118
0.0095183002 -0.28687999 -1.9145
0.012527 -0.28654999 -1.9124
0.015779 -0.28681999 -1.9141999
0.018909 -0.28679001 -1.914
0.022039 -0.28676 -1.9138
0.024896 -0.28613999 -1.9096
0.028227 -0.28654999 -1.9123
0.031353999 -0.28652 -1.9121
0.034407001 -0.28634 -1.9109
0.037606999 -0.28645 -1.9117
0.040732 -0.28641 -1.9114
0.043935999 -0.28652999 -1.9122
0.046902001 -0.28619 -1.91
0.049860999 -0.28586 -1.9076999
0.052896 -0.28567001 -1.9065
0.056182999 -0.28593001 -1.9082
0.059390001 -0.28604001 -1.9089
0.062776998 -0.28644001 -1.9116
0.065902002 -0.28639999 -1.9112999
0.068934999 -0.28621 -1.9101
0.071962997 -0.28602001 -1.9088
0.075276002 -0.28626999 -1.9105
0.078300998 -0.28608 -1.9092
0.081522003 -0.28617999 -1.9099
7.0306e-05 -0.28487 -1.9144
0.0032560001 -0.28499001 -1.9152
0.0063298 -0.28481999 -1.914
0.0093405005 -0.2845 -1.9119
0.012588 -0.28476 -1.9137
0.015779 -0.28488001 -1.9144
0.018909 -0.28485 -1.9141999
0.021973001 -0.28468001 -1.9131
0.0251 -0.28465 -1.9129
0.028227 -0.28461 -1.9126
0.031569 -0.28501999 -1.9154
0.034554001 -0.28468999 -1.9132
0.037757002 -0.28481001 -1.9139
0.040886 -0.28477001 -1.9137
0.047223002 -0.28485 -1.9141999
0.050352 -0.28481001 -1.914
0.053229999 -0.28433001 -1.9107
0.056354001 -0.28428999 -1.9105
0.059477001 -0.28424999 -1.9102
0.062776998 -0.2845 -1.9119
0.078497 -0.28444001 -1.9114
0.081620999 -0.28439 -1.9111
0.00023244999 -0.28327999 -1.9176
0.0033118001 -0.28310999 -1.9165
0.0062147002 -0.2825 -1.9123
0.0094590001 -0.28275999 -1.9141001
0.012527 -0.28259 -1.913
0.025168 -0.28275999 -1.9141001
0.028297 -0.28273001 -1.9139
0.031353999 -0.28255001 -1.9127001
0.034554001 -0.28266001 -1.9135
0.037757002 -0.28277999 -1.9141999
0.040886 -0.28274 -1.914
0.056439001 -0.28241 -1.9118
0.059564002 -0.28237 -1.9115
0.00023244999 -0.28117999 -1.9179
0.0033118001 -0.28101 -1.9168
0.0096369004 -0.2811 -1.9174
0.012771 -0.28108001 -1.9172
0.015905 -0.28105 -1.9170001
0.028297 -0.28064001 -1.9141999
0.031497002 -0.28075001 -1.915
0.0011969 -0.011023 -1.1260999
0.0023082001 -0.010963 -1.12
0.0040150001 -0.010961 -1.1198
0.0057214 -0.010959 -1.1196001
0.00764 -0.010977 -1.1214
0.0096731 -0.011004 -1.1242
0.011278 -0.010993 -1.1231
0.01299 -0.010991 -1.1229
0.014701 -0.010989 -1.1227
0.016758 -0.011016 -1.1255
0.018707 -0.011034 -1.1272
0.019835001 -0.010983 -1.1221
0.021545 -0.010981 -1.1219
0.023255 -0.010979 -1.1217
0.024964999 -0.010977 -1.1215
0.026674001 -0.010975 -1.1212
0.028383 -0.010973 -1.1210001
0.030477 -0.011 -1.1238
0.032843001 -0.011046 -1.1285
0.033374999 -0.010957 -1.1194
0.035080001 -0.010954 -1.1191
0.036784999 -0.010952 -1.1188999
0.039726999 -0.011037 -1.1276
0.041446999 -0.011035 -1.1273
0.043166 -0.011032 -1.1271
0.043602001 -0.010943 -1.1179
0.0010976 -0.0097452998 -1.1251
0.0027123 -0.0097351996 -1.124
0.0044260002 -0.0097337002 -1.1238
0.0059304 -0.0097148996 -1.1216
0.0078523997 -0.0097305998 -1.1234
0.0095651997 -0.0097289998 -1.1233
0.011168 -0.0097187003 -1.1221
0.013213 -0.0097428998 -1.1249
0.014928 -0.0097412001 -1.1247
0.017101999 -0.0097740004 -1.1285
0.01859 -0.0097549995 -1.1263
0.020307999 -0.0097532002 -1.1260999
0.022025 -0.0097514996 -1.1259
0.024108 -0.0097754002 -1.1286
0.025706001 -0.0097650001 -1.1274
0.0273 -0.0097545004 -1.1262
0.028891001 -0.0097441003 -1.125
0.030991999 -0.0097679002 -1.1278
0.032582 -0.0097573996 -1.1265
0.034299999 -0.0097554 -1.1263
0.036017999 -0.0097534005 -1.1260999
0.038006999 -0.0097685 -1.1278
0.040139001 -0.0097922003 -1.1306
0.041724999 -0.0097816 -1.1293
0.043306999 -0.0097709 -1.1281
0.044458002 -0.0097345002 -1.1239001
0.046314999 -0.0097409002 -1.1246001
0.047738001 -0.0097216005 -1.1224
0.048562001 -0.009668 -1.1162
0.049963001 -0.0096485997 -1.114
0.052264001 -0.0096805999 -1.1177
0.054426 -0.0097040003 -1.1204
0.056288 -0.0097102998 -1.1210999
0.058153 -0.0097164996 -1.1217999
0.060337 -0.0097398004 -1.1245
0.062052 -0.0097374003 -1.1242
0.063766003 -0.0097350003 -1.124
0.066132002 -0.0097666997 -1.1276
0.068842001 -0.0098155001 -1.1332
0.070905998 -0.0098301005 -1.1349
0.071627997 -0.0097762998 -1.1287
0.072498001 -0.0097310999 -1.1235
0.073523998 -0.0096944002 -1.1193
0.075750001 -0.0097174002 -1.1219
0.077809997 -0.0097318003 -1.1236
0.080586001 -0.0097802998 -1.1292
0.082487002 -0.0097861001 -1.1299
0.083849996 -0.0097663002 -1.1276
0.084840998 -0.0097294999 -1.1233
0.085450001 -0.0096757002 -1.1171
0.087150998 -0.0096728997 -1.1168
0.088852003 -0.0096701002 -1.1165
0.090553001 -0.0096672997 -1.1161
0.093778998 -0.0097324997 -1.1237
0.095298998 -0.0097211003 -1.1223
0.098757997 -0.0097946003 -1.1308
0.098719999 -0.0097152004 -1.1217
0.00070049003 -0.0085757002 -1.1212
0.0024093001 -0.0085744001 -1.1210001
0.0043233 -0.0085882004 -1.1228
0.0061393999 -0.0085944999 -1.1236
0.0081711002 -0.0086158998 -1.1264
0.009997 -0.0086220996 -1.1272
0.011058 -0.0085751005 -1.1210999
0.012767 -0.0085736001 -1.1209
0.014588 -0.0085797003 -1.1217
0.016298 -0.0085781999 -1.1215
0.018007001 -0.0085767005 -1.1213
0.019835001 -0.0085827 -1.1221
0.021904999 -0.0086040003 -1.1249
0.023863999 -0.0086174998 -1.1266
0.025706001 -0.0086235004 -1.1274
0.027426001 -0.0086219003 -1.1272
0.028764 -0.0085974 -1.124
0.030348999 -0.0085880999 -1.1228
0.032320999 -0.0086016003 -1.1246001
0.034299999 -0.0086150002 -1.1263
0.036419999 -0.0086359996 -1.1291
0.038685001 -0.0086645 -1.1328
0.039864 -0.0086324001 -1.1286
0.041446999 -0.0086230002 -1.1274
0.043026 -0.0086134998 -1.1260999
0.044458002 -0.0085965004 -1.1239001
0.046314999 -0.0086022001 -1.1246001
0.04803 -0.0086003002 -1.1244
0.050336 -0.0086286003 -1.1281
0.051608 -0.0086038997 -1.1249
0.053624999 -0.0086169997 -1.1266
0.055038001 -0.0085998997 -1.1243
0.057061002 -0.0086129997 -1.126
0.058935001 -0.0086185001 -1.1267999
0.060653001 -0.0086164 -1.1265
0.062850997 -0.0086369002 -1.1292
0.064411998 -0.0086271996 -1.1279
0.065968998 -0.0086174998 -1.1266
0.067686997 -0.0086153001 -1.1264
0.070239 -0.0086508002 -1.131
0.071627997 -0.0086335 -1.1287
0.073008999 -0.0086161001 -1.1265
0.074726999 -0.0086139003 -1.1262
0.076618001 -0.0086190999 -1.1269
0.078336 -0.0086168004 -1.1265
0.080408998 -0.0086294999 -1.1282001
0.082487002 -0.0086420998 -1.1299
0.084210999 -0.0086396998 -1.1295
0.085752003 -0.0086297998 -1.1282001
0.087288998 -0.0086198002 -1.1269
0.088078998 -0.0085797999 -1.1217
0.091288 -0.0086374003 -1.1292
0.093199998 -0.0086423997 -1.1299
0.095687002 -0.0086698998 -1.1335
0.097416997 -0.0086673005 -1.1331
0.099339999 -0.0086722001 -1.1338
0.00070049003 -0.0075832 -1.1212
0.0025102999 -0.0075886999 -1.122
0.0043233 -0.0075943 -1.1228
0.0064528999 -0.0076199998 -1.1266
0.0079586999 -0.0076052998 -1.1245
0.0097810999 -0.0076108002 -1.1253
0.011058 -0.0075826002 -1.1210999
0.013101 -0.0076015 -1.1239001
0.014815 -0.0076001999 -1.1237
0.016527999 -0.0075988001 -1.1235
0.018356999 -0.0076041999 -1.1243
0.019835001 -0.0075893998 -1.1221
0.021664999 -0.0075947 -1.1229
0.023376999 -0.0075933002 -1.1227
0.025459001 -0.0076120002 -1.1253999
0.027175 -0.0076106 -1.1252
0.028764 -0.0076024001 -1.124
0.030477 -0.0076008998 -1.1238
0.032191001 -0.0075993999 -1.1236
0.034168001 -0.0076112002 -1.1253
0.035884 -0.0076096999 -1.1251
0.037599999 -0.0076080998 -1.1249
0.039315 -0.0076064998 -1.1246001
0.041308001 -0.0076183002 -1.1264
0.043026 -0.0076166 -1.1260999
0.044884998 -0.0076216999 -1.1269
0.046893001 -0.0076334001 -1.1286
0.04803 -0.0076048998 -1.1244
0.049745001 -0.0076032002 -1.1241
0.051458001 -0.0076013999 -1.1239001
0.053474002 -0.007613 -1.1256
0.055344 -0.0076179001 -1.1263
0.057216 -0.0076227998 -1.127
0.059560001 -0.0076477001 -1.1307
0.061128002 -0.0076392 -1.1295
0.062850997 -0.0076373001 -1.1292
0.06425 -0.0076219998 -1.1269
0.065806001 -0.0076135001 -1.1257
0.067521997 -0.0076115001 -1.1253999
0.069904998 -0.0076362002 -1.1289999
0.072132997 -0.0076543 -1.1317
0.073519997 -0.0076389001 -1.1294
0.075415 -0.0076436 -1.1301
0.076792002 -0.0076282001 -1.1278
0.078161001 -0.0076128002 -1.1256
0.079700001 -0.0076040998 -1.1243
0.081772 -0.0076152999 -1.1259
0.084030002 -0.0076330998 -1.1286
0.085752003 -0.0076310001 -1.1283
0.088209003 -0.0076553999 -1.1319
0.089565001 -0.0076398998 -1.1296
0.090912998 -0.0076243998 -1.1273
0.092442997 -0.0076155998 -1.126
0.094541997 -0.0076266001 -1.1276
0.097032003 -0.0076509002 -1.1312
0.099339999 -0.0076684998 -1.1338
0.0010976 -0.0064213001 -1.1252
0.0028134 -0.0064202999 -1.125
0.0041176998 -0.0063966 -1.1208
0.0060349 -0.0064069 -1.1227
0.0078523997 -0.0064115999 -1.1235
0.0096731 -0.0064162002 -1.1243
0.011497 -0.0064208 -1.1251
0.013547 -0.0064367 -1.1279
0.015267 -0.0064356001 -1.1277
0.016987 -0.0064345002 -1.1275001
0.018474 -0.006422 -1.1253
0.019835001 -0.0064038001 -1.1221
0.021785 -0.0064139999 -1.1239001
0.023499001 -0.0064127999 -1.1237
0.025335001 -0.0064173001 -1.1245
0.02705 -0.006416 -1.1242
0.028764 -0.0064148 -1.124
0.030606 -0.0064192 -1.1248
0.032191001 -0.0064122998 -1.1236
0.034035999 -0.0064166002 -1.1244
0.035884 -0.0064210002 -1.1251
0.037599999 -0.0064196 -1.1249
0.039177001 -0.0064126002 -1.1237
0.040750999 -0.0064055999 -1.1224
0.042885002 -0.0064212 -1.1251
0.045028001 -0.0064367 -1.1279
0.046748001 -0.0064353002 -1.1276
0.048468001 -0.0064339 -1.1274
0.049745001 -0.0064154998 -1.1241
0.051608 -0.0064196 -1.1249
0.053172 -0.0064125 -1.1236
0.055038001 -0.0064166002 -1.1244
0.056597002 -0.0064094998 -1.1231
0.058465999 -0.0064135999 -1.1238
0.060811002 -0.0064345999 -1.1275001
0.062691003 -0.0064385999 -1.1282001
0.06425 -0.0064313998 -1.1269
0.066295996 -0.0064409999 -1.1286
0.068016998 -0.0064393999 -1.1283
0.070072003 -0.006449 -1.13
0.071291 -0.0064305002 -1.1267999
0.073178999 -0.0064344001 -1.1275001
0.075071 -0.0064383 -1.1282001
0.076964997 -0.0064421999 -1.1288
0.078511998 -0.0064348001 -1.1275001
0.080232002 -0.0064331 -1.1272
0.081235997 -0.0064089 -1.123
0.083127998 -0.0064126998 -1.1237
0.084840998 -0.0064109 -1.1233
0.086736999 -0.0064146998 -1.124
0.089008003 -0.0064297002 -1.1266
0.090726003 -0.0064277998 -1.1263
0.092442997 -0.0064258999 -1.126
0.094541997 -0.0064352001 -1.1276
0.096647002 -0.0064444998 -1.1292
0.098369002 -0.0064425999 -1.1289001
0.099895999 -0.0064349999 -1.1276
0.00079978001 -0.0052825999 -1.1222
0.0027123 -0.0052911998 -1.124
0.0043233 -0.0052856999 -1.1228
0.0058259 -0.0052755 -1.1207
0.0072150002 -0.0052605998 -1.1174999
0.0089173 -0.0052597001 -1.1173
0.010619 -0.0052588 -1.1171
0.012767 -0.0052767 -1.1209
0.015041 -0.0052991002 -1.1257
0.016758 -0.0052982001 -1.1255
0.018474 -0.0052972999 -1.1253
0.020071 -0.0052915998 -1.1241
0.021664999 -0.0052860002 -1.1229
0.023255 -0.0052803 -1.1217
0.024840999 -0.0052747 -1.1205
0.026047001 -0.0052550002 -1.1163
0.028129 -0.0052680001 -1.1191
0.030477 -0.0052903001 -1.1238
0.032582 -0.0053031999 -1.1266
0.034565002 -0.0053114998 -1.1283
0.036419999 -0.0053150998 -1.1291
0.037328001 -0.0052860002 -1.1229
0.038628001 -0.0052709002 -1.1197
0.040194999 -0.0052650999 -1.1185
0.041898999 -0.005264 -1.1181999
0.04403 -0.0052768001 -1.1210001
0.046314999 -0.0052943002 -1.1247
0.04803 -0.0052931001 -1.1244
0.050039999 -0.0053011999 -1.1260999
0.051757 -0.0052999998 -1.1259
0.053172 -0.0052894 -1.1236
0.054426 -0.0052741999 -1.1204
0.056442998 -0.0052823001 -1.1221
0.058621999 -0.005295 -1.1248
0.060653001 -0.0053030001 -1.1265
0.062371001 -0.0053017 -1.1262
0.064089 -0.0053003998 -1.126
0.066132002 -0.0053082998 -1.1276
0.067521997 -0.0052976999 -1.1253999
0.069404997 -0.0053010001 -1.1260999
0.070785001 -0.0052903001 -1.1238
0.072668999 -0.0052935998 -1.1245
0.074555002 -0.0052967998 -1.1252
0.076792002 -0.0053093 -1.1279
0.078511998 -0.0053078998 -1.1276
0.080054 -0.0053018001 -1.1263
0.081592999 -0.0052956999 -1.125
0.082947001 -0.005285 -1.1227
0.085023001 -0.0052927001 -1.1243
0.086736999 -0.0052911998 -1.124
0.088822 -0.0052990001 -1.1257
0.090726003 -0.0053019999 -1.1263
0.092442997 -0.0053005 -1.126
0.094351001 -0.0053035999 -1.1266
0.096262001 -0.0053066001 -1.1273
0.098369002 -0.0053142002 -1.1289001
0.099699996 -0.0053034001 -1.1266
0.00040262 -0.0041171 -1.1181999
0.0023082001 -0.0041238 -1.12
0.0040150001 -0.0041232002 -1.1199
0.0055124001 -0.0041152001 -1.1177
0.0074275001 -0.0041219001 -1.1195
0.0092412997 -0.0041248999 -1.1203001
0.010948 -0.0041242 -1.1201
0.012878 -0.0041307998 -1.1219
0.014588 -0.0041300999 -1.1217
0.016412999 -0.004133 -1.1224999
0.017890999 -0.004125 -1.1203001
0.019598 -0.0041242 -1.1201
0.021545 -0.0041307998 -1.1219
0.023376999 -0.0041336999 -1.1227
0.025211999 -0.0041364999 -1.1235
0.026923999 -0.0041356999 -1.1233
0.028636999 -0.0041348999 -1.123
0.030734999 -0.0041450998 -1.1258
0.032582 -0.0041478998 -1.1266
0.034299999 -0.0041470998 -1.1263
0.035884 -0.0041426001 -1.1251
0.037057001 -0.0041271001 -1.1209
0.038628001 -0.0041226 -1.1197
0.040334001 -0.0041216998 -1.1195
0.042038999 -0.0041208002 -1.1192
0.044743001 -0.0041454998 -1.1259
0.046893001 -0.0041554999 -1.1286
0.04803 -0.0041399999 -1.1244
0.049745001 -0.0041390001 -1.1242
0.051010001 -0.0041272002 -1.1209
0.052717999 -0.0041262 -1.1207
0.054426 -0.0041252002 -1.1204
0.056906998 -0.0041423999 -1.1251
0.058777999 -0.0041450998 -1.1258
0.060653001 -0.0041477 -1.1265
0.062371001 -0.0041466998 -1.1262
0.063441999 -0.0041311001 -1.122
0.064825997 -0.0041228002 -1.1198
0.066862002 -0.004129 -1.1214
0.068905003 -0.0041351998 -1.1231
0.070785001 -0.0041378001 -1.1238
0.073008999 -0.0041475999 -1.1265
0.075071 -0.0041538002 -1.1282001
0.076618001 -0.0041490002 -1.1269
0.078686997 -0.0041552 -1.1285
0.079522997 -0.0041359002 -1.1233
0.081056997 -0.0041311001 -1.122
0.083127998 -0.0041371998 -1.1237
0.085386999 -0.0041469 -1.1263
0.087288998 -0.0041494002 -1.127
0.089193001 -0.0041518002 -1.1276
0.090726003 -0.0041470001 -1.1263
0.092442997 -0.0041458001 -1.126
0.093778998 -0.0041373 -1.1237
0.095683999 -0.0041397 -1.1243
0.098174997 -0.0041529001 -1.1279
0.00010476 -0.0029799 -1.1152
0.0018031 -0.0029794001 -1.1151
0.0038093999 -0.0029869 -1.1179
0.0057214 -0.0029918 -1.1197
0.0077462001 -0.0029992999 -1.1224999
0.0098890997 -0.0030094001 -1.1263
0.011607 -0.0030089 -1.1260999
0.01299 -0.0030004 -1.1229
0.014588 -0.0029972 -1.1217
0.016068 -0.0029914 -1.1195
0.017657001 -0.0029881999 -1.1184
0.019243 -0.0029849999 -1.1172
0.021184999 -0.0029897999 -1.1188999
0.023133 -0.0029945001 -1.1207
0.025087999 -0.0029992999 -1.1224999
0.026923999 -0.0030014 -1.1233
0.029018 -0.0030087 -1.126
0.030606 -0.0030055 -1.1248
0.032191001 -0.0030022 -1.1236
0.033904001 -0.0030016 -1.1234
0.035482001 -0.0029984 -1.1222
0.036920998 -0.0029924 -1.1199
0.038628001 -0.0029918 -1.1197
0.040334001 -0.0029912 -1.1195
0.042038999 -0.0029905001 -1.1192
0.044599999 -0.0030058001 -1.1249
0.046314999 -0.0030050999 -1.1247
0.04803 -0.0030044001 -1.1244
0.049596999 -0.0030010999 -1.1232001
0.051158998 -0.0029978 -1.1219
0.052717999 -0.0029944 -1.1207
0.054579001 -0.0029964 -1.1214
0.056288 -0.0029957001 -1.1210999
0.058309 -0.0030002 -1.1228
0.060337 -0.0030048001 -1.1245
0.062052 -0.0030040001 -1.1243
0.063766003 -0.0030032999 -1.124
0.065479003 -0.0030024999 -1.1237
0.067192003 -0.0030018 -1.1234
0.068905003 -0.003001 -1.1231
0.070448004 -0.0029976 -1.1219
0.072158001 -0.0029968 -1.1216
0.074038997 -0.0029986 -1.1223
0.076096997 -0.0030030999 -1.1239001
0.077986002 -0.0030048999 -1.1246001
0.079876997 -0.0030067 -1.1253
0.081772 -0.0030085 -1.126
0.083489001 -0.0030077 -1.1256
0.085205004 -0.0030068001 -1.1253
0.086736999 -0.0030034001 -1.124
0.088822 -0.0030078001 -1.1257
0.090538003 -0.0030069 -1.1253
0.092253998 -0.0030060001 -1.125
0.093970001 -0.0030050999 -1.1247
0.095491998 -0.0030016 -1.1234
0.097787 -0.0030086001 -1.126
0.099699996 -0.0030103 -1.1266
0.00010476 -0.0018652 -1.1152
0.0020051999 -0.0018682 -1.1171
0.0038093999 -0.0018696 -1.1179
0.0056169 -0.001871 -1.1187
0.0073213 -0.0018707 -1.1185
0.0093491999 -0.0018754 -1.1213
0.011168 -0.0018767 -1.1221
0.012767 -0.0018747 -1.1209
0.014475 -0.0018744 -1.1207
0.016068 -0.0018724001 -1.1196001
0.017774001 -0.0018721001 -1.1194
0.019478999 -0.0018717 -1.1192
0.021305 -0.0018730999 -1.1199
0.022888999 -0.0018711 -1.1187
0.024594 -0.0018707 -1.1185
0.026298 -0.0018703 -1.1183
0.028510001 -0.0018766 -1.1221
0.030477 -0.0018796 -1.1238
0.032191001 -0.0018792 -1.1236
0.033771001 -0.0018772 -1.1224
0.035482001 -0.0018768 -1.1222
0.037193 -0.0018764 -1.1219
0.038903002 -0.001876 -1.1217
0.040472999 -0.0018738999 -1.1205
0.042321 -0.0018752 -1.1212
0.044314999 -0.0018781 -1.1229
0.046027001 -0.0018777 -1.1227
0.047883999 -0.0018789 -1.1234
0.049596999 -0.0018785 -1.1232001
0.051458001 -0.0018797 -1.1239001
0.053020999 -0.0018776 -1.1227
0.054885 -0.0018788 -1.1234
0.056597002 -0.0018784 -1.1231
0.058621999 -0.0018812 -1.1248
0.060337 -0.0018808 -1.1246001
0.062052 -0.0018803 -1.1243
0.063441999 -0.0018765 -1.122
0.064825997 -0.0018728001 -1.1198
0.066697001 -0.001874 -1.1205
0.068905003 -0.0018784 -1.1231
0.070616998 -0.0018779 -1.1228
0.072498001 -0.0018791 -1.1235
0.073867001 -0.0018753 -1.1213
0.075576 -0.0018748 -1.1210001
0.077284001 -0.0018743 -1.1207
0.079168998 -0.0018754 -1.1213
0.081592999 -0.0018815 -1.125
0.083489001 -0.0018826 -1.1256
0.085386999 -0.0018837 -1.1263
0.086736999 -0.0018799 -1.124
0.088265002 -0.0018777 -1.1227
0.089975998 -0.0018772 -1.1224
0.091498002 -0.001875 -1.1210999
0.093778998 -0.0018794 -1.1237
0.095683999 -0.0018804 -1.1243
0.098369002 -0.0018881001 -1.1289001
0.00050190999 -0.00087207998 -1.1192
0.0021062 -0.00087117002 -1.1181
0.0040150001 -0.00087257999 -1.1199
0.0055124001 -0.00087088998 -1.1177
0.0074275001 -0.00087230001 -1.1195
0.0089173 -0.00087061001 -1.1173
0.010729 -0.00087123999 -1.1181
0.012544 -0.00087187003 -1.1188999
0.014475 -0.00087326998 -1.1207
0.016298 -0.00087389001 -1.1215
0.018007001 -0.00087372999 -1.1213
0.019835001 -0.00087435002 -1.1221
0.021664999 -0.00087495998 -1.1229
0.023255 -0.00087401998 -1.1217
0.024716999 -0.00087231002 -1.1195
0.026674001 -0.00087369001 -1.1213
0.028636999 -0.00087506999 -1.1231
0.030348999 -0.00087490003 -1.1228
0.032191001 -0.00087549997 -1.1236
0.033771001 -0.00087455002 -1.1224
0.035482001 -0.00087436999 -1.1222
0.037193 -0.00087419001 -1.1219
0.038903002 -0.00087400002 -1.1217
0.040890001 -0.00087535998 -1.1234
0.042603001 -0.00087516999 -1.1232001
0.044314999 -0.00087498 -1.1229
0.046027001 -0.00087479001 -1.1227
0.047738001 -0.00087459001 -1.1224
0.049596999 -0.00087515998 -1.1232001
0.051757 -0.00087727001 -1.1259
0.053624999 -0.00087783998 -1.1266
0.054885 -0.00087531999 -1.1234
0.056442998 -0.00087435002 -1.1221
0.058153 -0.00087414001 -1.1219
0.059863001 -0.00087393 -1.1216
0.062052 -0.00087602 -1.1243
0.063927002 -0.00087657 -1.125
0.065968998 -0.00087788998 -1.1267
0.067521997 -0.00087689998 -1.1253999
0.069071002 -0.00087589998 -1.1241
0.070616998 -0.00087490998 -1.1228
0.071648002 -0.00087161001 -1.1186
0.074211001 -0.00087520998 -1.1232001
0.076096997 -0.00087574997 -1.1239001
0.078161001 -0.00087704998 -1.1256
0.079700001 -0.00087604002 -1.1243
0.081056997 -0.00087425997 -1.122
0.082585998 -0.00087326003 -1.1207
0.083930001 -0.00087147998 -1.1184
0.086185001 -0.00087352999 -1.1210999
0.089008003 -0.00087787001 -1.1267
0.091288 -0.00087991002 -1.1293
0.093010999 -0.00087966002 -1.1289001
0.094541997 -0.00087862997 -1.1276
0.096069001 -0.00087761 -1.1263
0.097397998 -0.00087580999 -1.124
0.098916002 -0.00087478 -1.1227
0.00070049003 0.00034368999 -1.1212
0.0023082001 0.00034333 -1.12
0.0041176998 0.00034358 -1.1209
0.0057214 0.00034321999 -1.1197
0.0075337002 0.00034346999 -1.1205
0.0088093998 0.00034219 -1.1163
0.010729 0.00034274999 -1.1181
0.012321 0.00034237999 -1.117
0.014362 0.00034324001 -1.1197
0.016183 0.00034348 -1.1205
0.018123999 0.00034403001 -1.1223
0.019835001 0.00034396999 -1.1221
0.021664999 0.00034421001 -1.1229
0.023133 0.00034354001 -1.1207
0.02447 0.00034256 -1.1174999
0.026172999 0.00034249001 -1.1173
0.028001999 0.00034273 -1.1181
0.029962 0.00034326999 -1.1199
0.031799 0.00034351001 -1.1206
0.033771001 0.00034405 -1.1224
0.035615999 0.00034428001 -1.1231
0.037193 0.0003439 -1.1219
0.038764998 0.00034353 -1.1207
0.040194999 0.00034284999 -1.1185
0.041898999 0.00034278 -1.1181999
0.04346 0.00034239999 -1.117
0.045449998 0.00034293 -1.1187
0.047883999 0.00034437 -1.1234
0.049449001 0.00034398999 -1.1222
0.051309001 0.00034421001 -1.1229
0.052869 0.00034383 -1.1217
0.054426 0.00034344001 -1.1204
0.056132998 0.00034336001 -1.1202
0.057840001 0.00034328 -1.1199
0.059546001 0.00034319999 -1.1196001
0.061572 0.00034371999 -1.1213
0.063441999 0.00034393999 -1.122
0.065479003 0.00034445 -1.1237
0.067521997 0.00034497 -1.1253999
0.069238 0.00034488001 -1.1251
0.070785001 0.00034448999 -1.1238
0.072498001 0.0003444 -1.1235
0.074211001 0.00034431001 -1.1232001
0.076270998 0.00034482 -1.1249
0.077986002 0.00034473001 -1.1246001
0.079700001 0.00034463001 -1.1243
0.081056997 0.00034393999 -1.122
0.083127998 0.00034443999 -1.1237
0.084659003 0.00034405 -1.1224
0.086553 0.00034425 -1.123
0.088450998 0.00034445 -1.1237
0.090538003 0.00034495001 -1.1253
0.092253998 0.00034485001 -1.125
0.093588002 0.00034415 -1.1227
0.096069001 0.00034525001 -1.1263
0.097397998 0.00034455 -1.124
0.099111997 0.00034443999 -1.1237
0.0022072 0.0014559 -1.119
0.0040150001 0.001457 -1.1199
0.0057214 0.0014567 -1.1197
0.0074275001 0.0014565 -1.1195
0.0088093998 0.0014524 -1.1163
0.010619 0.0014534 -1.1171
0.012321 0.0014532 -1.117
0.013909 0.0014517 -1.1158
0.015838001 0.001454 -1.1176
0.018123999 0.0014601999 -1.1223
0.019835001 0.0014599001 -1.1221
0.021785 0.0014622 -1.1239001
0.023133 0.0014581 -1.1207
0.024347 0.0014527 -1.1165
0.025922 0.0014511 -1.1153001
0.027620001 0.0014508 -1.1151
0.029576 0.0014531 -1.1169
0.031537998 0.0014554 -1.1186
0.033507001 0.0014577 -1.1204
0.035615999 0.0014612 -1.1231
0.037599999 0.0014635 -1.1249
0.039039999 0.0014605999 -1.1227
0.040054999 0.0014539 -1.1174999
0.041476 0.001451 -1.1153001
0.043173999 0.0014507 -1.115
0.045304999 0.0014542 -1.1177
0.047883999 0.0014616 -1.1234
0.049745001 0.0014626 -1.1242
0.051458001 0.0014622 -1.1239001
0.053172 0.0014619 -1.1236
0.054426 0.0014577 -1.1204
0.055978999 0.0014561 -1.1192
0.057526998 0.0014544 -1.1179
0.059388001 0.0014554 -1.1186
0.061411999 0.0014576 -1.1203001
0.063441999 0.0014598001 -1.122
0.065479003 0.001462 -1.1237
0.066862002 0.0014591001 -1.1215
0.068737999 0.0014600001 -1.1222
0.070110999 0.001457 -1.1199
0.072158001 0.0014592001 -1.1216
0.074211001 0.0014614 -1.1232001
0.075923003 0.0014609999 -1.1229
0.077634998 0.0014605999 -1.1226
0.079168998 0.0014589 -1.1213
0.080521002 0.0014559 -1.1191
0.082585998 0.0014581 -1.1207
0.084476002 0.0014590001 -1.1214
0.086553 0.0014610999 -1.123
0.088265002 0.0014606999 -1.1227
0.089975998 0.0014602999 -1.1224
0.091687001 0.0014598001 -1.1221
0.093015999 0.0014569 -1.1198
0.095298998 0.0014602999 -1.1224
0.097204 0.0014610999 -1.123
0.099111997 0.0014619 -1.1237
0.0018031 0.0024538001 -1.1151
0.0036039001 0.0024556001 -1.1159
0.0057214 0.0024639 -1.1197
0.0075337002 0.0024657 -1.1205
0.0092412997 0.0024653 -1.1203001
0.010948 0.0024649 -1.1201
0.012432 0.0024601 -1.118
0.014022 0.0024575 -1.1168
0.015838001 0.0024593 -1.1176
0.018007001 0.0024675999 -1.1213
0.019716 0.0024671 -1.1210999
0.021305 0.0024645 -1.1199
0.022768 0.0024597 -1.1177
0.02447 0.0024592001 -1.1174999
0.026298 0.0024609 -1.1183
0.028129 0.0024625999 -1.1191
0.030091001 0.0024665 -1.1209
0.031668998 0.0024637999 -1.1196001
0.033507001 0.0024655 -1.1204
0.035615999 0.0024716 -1.1231
0.037328001 0.002471 -1.1229
0.038764998 0.0024661999 -1.1207
0.039916001 0.0024569 -1.1165
0.041476 0.0024542001 -1.1153001
0.043173999 0.0024536999 -1.115
0.045593999 0.0024639999 -1.1197
0.04803 0.0024744 -1.1244
0.049892001 0.002476 -1.1252
0.051458001 0.0024732 -1.1239001
0.052869 0.0024683001 -1.1217
0.053966999 0.0024590001 -1.1174999
0.055668999 0.0024584001 -1.1172
0.057684001 0.0024621999 -1.1188999
0.060178999 0.0024725001 -1.1236
0.062052 0.002474 -1.1243
0.064089 0.0024778 -1.126
0.065479003 0.0024728 -1.1237
0.066697001 0.0024657 -1.1205
0.068071 0.0024607 -1.1181999
0.069438003 0.0024557 -1.1159
0.071818002 0.0024637999 -1.1196001
0.074038997 0.0024695999 -1.1223
0.076444 0.0024776 -1.1259
0.077986002 0.0024748 -1.1246001
0.079346001 0.0024697999 -1.1223
0.080521002 0.0024625999 -1.1191
0.082225002 0.0024619 -1.1188
0.084293999 0.0024655 -1.1204
0.086369 0.0024691999 -1.1221
0.088636003 0.0024749001 -1.1247
0.090726003 0.0024786 -1.1263
0.092442997 0.0024778 -1.126
0.093396999 0.0024685001 -1.1217
0.094722003 0.0024633999 -1.1194
0.096427001 0.0024627 -1.1191
0.098328002 0.0024641 -1.1197
0.00040262 0.0037255001 -1.1181999
0.0023082001 0.0037314999 -1.12
0.0039122002 0.0037276 -1.1188999
0.0056169 0.003727 -1.1187
0.0072150002 0.0037231001 -1.1174999
0.0088093998 0.0037191999 -1.1163
0.010619 0.0037219001 -1.1171
0.01221 0.0037179 -1.1160001
0.014022 0.0037205999 -1.1168
0.016068 0.0037299001 -1.1195
0.017890999 0.0037324999 -1.1203001
0.019478999 0.0037286 -1.1191
0.021305 0.0037312 -1.1199
0.023133 0.0037338 -1.1207
0.024964999 0.0037364 -1.1215
0.026548 0.0037324 -1.1203001
0.028129 0.0037283001 -1.1191
0.029576 0.0037209999 -1.1169
0.031277001 0.0037203 -1.1167001
0.033374999 0.0037294 -1.1194
0.035080001 0.0037287001 -1.1192
0.036920998 0.0037312 -1.1199
0.038764998 0.0037336999 -1.1207
0.040472999 0.0037328999 -1.1205
0.042038999 0.0037288 -1.1192
0.043602001 0.0037247001 -1.118
0.045449998 0.0037272 -1.1187
0.0473 0.0037296 -1.1195
0.048858002 0.0037255001 -1.1181999
0.051010001 0.0037344999 -1.1209
0.052416001 0.0037271001 -1.1187
0.054273002 0.0037295001 -1.1194
0.055978999 0.0037286 -1.1192
0.058153 0.0037376001 -1.1219
0.059863001 0.0037366999 -1.1216
0.061572 0.0037358 -1.1213
0.063281 0.0037348 -1.1210001
0.064989001 0.0037338999 -1.1207
0.066697001 0.0037328999 -1.1205
0.068237998 0.0037287001 -1.1192
0.070110999 0.003731 -1.1199
0.071818002 0.00373 -1.1196001
0.074211001 0.0037422001 -1.1232001
0.075750001 0.0037378999 -1.122
0.077634998 0.0037402001 -1.1226
0.078992002 0.0037326 -1.1204
0.080521002 0.0037283001 -1.1191
0.082405999 0.0037304999 -1.1197
0.084476002 0.003736 -1.1214
0.086369 0.0037382001 -1.1221
0.087894 0.0037338999 -1.1208
0.090163998 0.0037426001 -1.1234
0.092064999 0.0037448001 -1.124
0.093588002 0.0037404001 -1.1227
0.095298998 0.0037393 -1.1224
0.097397998 0.0037447 -1.124
0.099111997 0.0037436001 -1.1237
0.00060119998 0.0049107 -1.1202
0.0024093001 0.0049143001 -1.1210001
0.0038093999 0.0049004001 -1.1179
0.0050944001 0.0048822002 -1.1137
0.0067901001 0.0048814001 -1.1135
0.0083774999 0.0048763002 -1.1124001
0.01051 0.0048929001 -1.1161
0.012321 0.0048964 -1.1169
0.014362 0.0049085999 -1.1197
0.016068 0.0049077999 -1.1195
0.017657001 0.0049025002 -1.1183
0.019361001 0.0049016001 -1.1181
0.021064 0.0049008001 -1.1179
0.023133 0.0049128998 -1.1207
0.025087999 0.0049207001 -1.1224999
0.026548 0.0049109999 -1.1203001
0.028129 0.0049057002 -1.1191
0.029576 0.0048961001 -1.1169
0.031277001 0.0048950999 -1.1167001
0.03311 0.0048985002 -1.1174001
0.034812 0.0048974999 -1.1172
0.036649998 0.0049008001 -1.1179
0.038764998 0.0049128002 -1.1207
0.040612001 0.0049160998 -1.1214
0.042321 0.0049149999 -1.1212
0.04403 0.0049139 -1.1210001
0.045161001 0.0048954999 -1.1167001
0.046861999 0.0048944 -1.1165
0.048266999 0.0048846002 -1.1143
0.050561 0.0049009002 -1.118
0.052869 0.0049171001 -1.1217
0.054731999 0.0049202 -1.1224
0.056442998 0.0049191001 -1.1221
0.057996001 0.0049136002 -1.1209
0.059388001 0.0049037002 -1.1186
0.060933001 0.0048981998 -1.1174001
0.062472999 0.0048925998 -1.1161
0.064498998 0.0049001002 -1.1178
0.067027003 0.0049204002 -1.1224
0.068905003 0.0049235001 -1.1231
0.070954002 0.0049308999 -1.1248
0.072498001 0.0049251998 -1.1235
0.073867001 0.0049152998 -1.1213
0.074882001 0.0048966999 -1.117
0.076757997 0.0048997002 -1.1177
0.078814998 0.0049069999 -1.1194
0.080877997 0.0049143001 -1.1210001
0.083307996 0.0049302001 -1.1247
0.085023001 0.0049287998 -1.1243
0.086920999 0.0049317 -1.125
0.088265002 0.0049216999 -1.1227
0.089602001 0.0049116001 -1.1204
0.091498002 0.0049144998 -1.1210999
0.093588002 0.0049216999 -1.1227
0.095683999 0.0049287998 -1.1243
0.097397998 0.0049272999 -1.124
0.099111997 0.0049258 -1.1237
0.00020405 0.0058665001 -1.1162
0.0017021 0.0058551002 -1.1141
0.0035011999 0.0058594001 -1.1149
0.0051989001 0.0058585 -1.1147
0.0071088001 0.005868 -1.1165
0.0090252999 0.0058774999 -1.1183
0.010839 0.0058817002 -1.1191
0.012432 0.0058754999 -1.1179
0.014022 0.0058693001 -1.1168
0.015722999 0.0058682999 -1.1166
0.017191 0.0058567999 -1.1144
0.018888 0.0058557 -1.1142
0.020703999 0.0058598998 -1.115
0.022646001 0.0058692 -1.1167001
0.024716999 0.0058837002 -1.1195
0.026423 0.0058825999 -1.1193
0.028129 0.0058815 -1.1191
0.029834 0.0058803 -1.1188999
0.031537998 0.0058792001 -1.1186
0.032714002 0.0058570998 -1.1144
0.034410998 0.0058558998 -1.1142
0.036242999 0.0058598998 -1.115
0.038077999 0.0058638998 -1.1157
0.040334001 0.0058835 -1.1195
0.042180002 0.0058873999 -1.1202
0.044172 0.0058964998 -1.1219
0.045304999 0.0058744 -1.1177
0.046569999 0.0058574998 -1.1145
0.047970999 0.0058458 -1.1123
0.049963001 0.0058547999 -1.114
0.052567001 0.0058847 -1.1197
0.054426 0.0058884998 -1.1204
0.055978999 0.0058819 -1.1192
0.057996001 0.0058908998 -1.1209
0.059388001 0.0058790999 -1.1186
0.060773 0.0058672 -1.1164
0.062472999 0.0058658002 -1.1161
0.064498998 0.0058746999 -1.1178
0.066532001 0.0058836001 -1.1195
0.068737999 0.0058976002 -1.1221
0.070616998 0.0059012002 -1.1228
0.072158001 0.0058944998 -1.1216
0.073867001 0.0058929999 -1.1213
0.075402997 0.0058861999 -1.12
0.077459998 0.005895 -1.1216
0.079346001 0.0058984999 -1.1223
0.081235997 0.0059020999 -1.123
0.082947001 0.0059004002 -1.1227
0.084476002 0.0058936002 -1.1214
0.086369 0.0058971001 -1.122
0.087707996 0.0058851 -1.1198
0.089414001 0.0058833999 -1.1194
0.090930998 0.0058765002 -1.1181
0.093396999 0.0058954 -1.1217
0.095491998 0.0059039998 -1.1234
0.097010002 0.005897 -1.122
0.098719999 0.0058952998 -1.1217
5.4679999e-06 0.0069924002 -1.1142
0.0016011 0.0069849999 -1.1131001
0.0035011999 0.0069964002 -1.1149
0.0053034001 0.0070016002 -1.1157
0.0072150002 0.0070129 -1.1174999
0.0090252999 0.0070179999 -1.1183
0.010729 0.0070167999 -1.1181
0.012432 0.0070155999 -1.1179
0.014022 0.0070082 -1.1167001
0.015608 0.0070007001 -1.1156
0.017074 0.0069869999 -1.1134
0.018769 0.0069857999 -1.1131999
0.020344 0.0069782999 -1.112
0.022036999 0.0069769998 -1.1118
0.023976 0.0069880998 -1.1135
0.025797 0.0069929999 -1.1143
0.027747 0.0070040999 -1.1161
0.029576 0.0070088999 -1.1169
0.03193 0.0070386999 -1.1216
0.033507001 0.0070310002 -1.1204
0.035080001 0.0070234002 -1.1192
0.036378 0.0070032999 -1.1160001
0.037941001 0.0069956002 -1.1147
0.039499 0.0069879 -1.1135
0.041476 0.0069988002 -1.1152
0.04346 0.0070096999 -1.117
0.045593999 0.0070268 -1.1197
0.047591999 0.0070376 -1.1214
0.049449001 0.0070421998 -1.1222
0.051010001 0.0070344 -1.1209
0.052416001 0.0070203999 -1.1187
0.053966999 0.0070125 -1.1174001
0.055668999 0.0070108999 -1.1172
0.057371002 0.0070091998 -1.1169
0.059071999 0.0070075002 -1.1166
0.061092 0.0070181 -1.1183
0.062958002 0.0070226002 -1.119
0.064825997 0.0070270002 -1.1197
0.067192003 0.0070500001 -1.1234
0.068905003 0.0070481999 -1.1231
0.070110999 0.0070278002 -1.1199
0.071477003 0.0070135999 -1.1176
0.073008001 0.0070055998 -1.1163
0.074882001 0.0070099002 -1.117
0.077109002 0.0070265001 -1.1197
0.079168998 0.0070369998 -1.1213
0.081235997 0.0070473999 -1.123
0.082947001 0.0070453999 -1.1227
0.084293999 0.0070310999 -1.1204
0.086002 0.0070290999 -1.1201
0.086966 0.0070023998 -1.1158
0.088665001 0.0070004002 -1.1155
0.090741999 0.0070107002 -1.1171
0.092825003 0.0070209 -1.1188
0.095106997 0.0070373002 -1.1214
0.097204 0.0070475 -1.123
0.099111997 0.0070515 -1.1236
0.00020405 0.0080885002 -1.1162
0.0018031 0.0080800997 -1.115
0.0031929 0.0080572003 -1.1119
0.0048854002 0.0080559002 -1.1117001
0.0065775998 0.0080546001 -1.1115
0.0087013999 0.0080821002 -1.1153001
0.010619 0.0080952002 -1.1171
0.012655 0.0081153996 -1.1199
0.014249 0.0081067998 -1.1187
0.015953001 0.0081054 -1.1185
0.017074 0.008068 -1.1134
0.018769 0.0080664996 -1.1131999
0.020223999 0.0080506001 -1.1109999
0.021915 0.0080490997 -1.1108
0.023729 0.0080548003 -1.1116
0.026047001 0.0080891997 -1.1163
0.028001999 0.0081019998 -1.1181
0.029704999 0.0081003997 -1.1178
0.031408001 0.0080987997 -1.1176
0.03311 0.0080971997 -1.1174001
0.034678001 0.0080883997 -1.1162
0.036378 0.0080867 -1.1159
0.038215 0.0080922004 -1.1167001
0.040194999 0.0081048002 -1.1184
0.041616999 0.0080886995 -1.1162
0.043887001 0.0081155999 -1.1199
0.045449998 0.0081067001 -1.1187
0.047153998 0.0081048999 -1.1185
0.04871 0.0080958996 -1.1172
0.050859999 0.0081155002 -1.1199
0.052264001 0.0080992999 -1.1177
0.053966999 0.0080974 -1.1174001
0.055824 0.0081026005 -1.1181
0.057684001 0.0081078 -1.1188999
0.058756001 0.0080773002 -1.1145999
0.060293 0.0080680996 -1.1134
0.062311001 0.0080803996 -1.1151
0.064663 0.008107 -1.1188
0.066862002 0.0081264004 -1.1214
0.068737999 0.0081313998 -1.1221
0.069438003 0.0080864998 -1.1159
0.070796996 0.0080701001 -1.1137
0.072835997 0.0080821998 -1.1153001
0.075055003 0.0081014996 -1.118
0.076757997 0.0080992999 -1.1177
0.078992002 0.0081185 -1.1203001
0.081056997 0.0081305001 -1.122
0.082767002 0.0081281997 -1.1217
0.084293999 0.0081187999 -1.1204
0.086002 0.0081165005 -1.1201
0.086966 0.0080856998 -1.1158
0.088852003 0.0080904998 -1.1165
0.090741999 0.0080952002 -1.1171
0.092825003 0.0081070997 -1.1188
0.095298998 0.0081331003 -1.1224
0.097010002 0.0081307003 -1.122
0.099111997 0.0081423996 -1.1236
0.00020405 0.0090931002 -1.1162
0.0018031 0.0090835998 -1.115
0.0030900999 0.0090498002 -1.1109
0.0047809002 0.0090482999 -1.1107
0.0065775998 0.0090549998 -1.1115
0.0083774999 0.0090616001 -1.1123
0.0104 0.0090843998 -1.1151
0.012321 0.0090990001 -1.1169
0.014249 0.0091137001 -1.1187
0.016068 0.0091201998 -1.1195
0.017307 0.0090862 -1.1153001
0.018888 0.0090763997 -1.1141
0.020463999 0.0090667 -1.113
0.022158001 0.0090650003 -1.1127
0.023976 0.0090714004 -1.1135
0.026172999 0.0091019999 -1.1173
0.028129 0.0091164 -1.1191
0.029704999 0.0091065001 -1.1178
0.031277001 0.0090966001 -1.1166
0.032977998 0.0090947999 -1.1164
0.034678001 0.0090929 -1.1162
0.036784999 0.0091153001 -1.1188999
0.038490001 0.0091132997 -1.1187
0.040334001 0.0091195004 -1.1194
0.041476 0.0090851998 -1.1152
0.043032002 0.0090752002 -1.114
0.044583999 0.0090651 -1.1128
0.046278 0.0090631004 -1.1125
0.048562001 0.0090933004 -1.1162
0.050411999 0.0090993 -1.117
0.052567001 0.0091212997 -1.1197
0.054273002 0.0091191996 -1.1194
0.055668999 0.0091009 -1.1172
0.056745 0.0090664998 -1.1129
0.05844 0.0090643996 -1.1127
0.060293 0.0090701999 -1.1134
0.062150002 0.0090760002 -1.1141
0.064663 0.0091139004 -1.1187
0.066862002 0.0091356998 -1.1214
0.068905003 0.0091493996 -1.1231
0.070110999 0.0091228997 -1.1199
0.071307003 0.0090965005 -1.1166
0.073008001 0.0090941004 -1.1163
0.074882001 0.0090995999 -1.117
0.076757997 0.0091051999 -1.1177
0.078814998 0.0091188001 -1.1193
0.080877997 0.0091322996 -1.1210001
0.083307996 0.0091618001 -1.1246001
0.084659003 0.0091431998 -1.1223
0.086369 0.0091406005 -1.122
0.087894 0.0091300001 -1.1207
0.089226998 0.0091113001 -1.1184
0.090930998 0.0091086999 -1.1181
0.093015999 0.0091220001 -1.1197
0.095106997 0.0091353003 -1.1214
0.096816003 0.0091324998 -1.1210001
0.099111997 0.0091537004 -1.1236
0.0016011 0.010354 -1.113
0.0031929 0.010343 -1.1119
0.0047809002 0.010332 -1.1107
0.0065775998 0.01034 -1.1115
0.0082695 0.010338 -1.1113
0.010181 0.010355 -1.1131001
0.01221 0.010381 -1.1159
0.014022 0.010388 -1.1167001
0.015838001 0.010396 -1.1174999
0.017424 0.010385 -1.1163
0.019006001 0.010374 -1.1151
0.020703999 0.010372 -1.1149
0.022158001 0.010351 -1.1127
0.023976 0.010358 -1.1135
0.025671 0.010357 -1.1133
0.027493 0.010364 -1.1141
0.029318999 0.010371 -1.1149
0.031146999 0.010378 -1.1156
0.032977998 0.010385 -1.1164
0.034678001 0.010383 -1.1162
0.036513999 0.01039 -1.1169
0.038215 0.010388 -1.1167001
0.039499 0.010358 -1.1135
0.041193999 0.010356 -1.1131999
0.042746998 0.010344 -1.112
0.044728 0.010361 -1.1137
0.046569999 0.010367 -1.1145
0.04871 0.010393 -1.1172
0.050710998 0.010409 -1.1188999
0.052113 0.010388 -1.1167001
0.053661 0.010376 -1.1154
0.055204999 0.010365 -1.1142
0.056589 0.010344 -1.1119
0.058756001 0.010369 -1.1145999
0.060773 0.010385 -1.1163
0.062472999 0.010382 -1.1161
0.064172998 0.010379 -1.1158
0.066202 0.010395 -1.1174999
0.068405002 0.01042 -1.1201
0.069605999 0.01039 -1.1169
0.071307003 0.010387 -1.1166
0.072835997 0.010375 -1.1153001
0.074882001 0.010391 -1.117
0.076757997 0.010397 -1.1177
0.078814998 0.010413 -1.1193
0.080698997 0.010419 -1.12
0.082044996 0.010398 -1.1177
0.084112003 0.010413 -1.1194
0.085634001 0.010401 -1.1181
0.087337002 0.010398 -1.1178
0.088665001 0.010377 -1.1155
0.090930998 0.010401 -1.1181
0.093015999 0.010416 -1.1197
0.095491998 0.01045 -1.1233
0.097204 0.010447 -1.123
0.099111997 0.010452 -1.1236
0.00020405 0.011603 -1.1162
0.0015 0.01156 -1.112
0.0030900999 0.011548 -1.1109
0.0046764002 0.011536 -1.1097
0.0067901001 0.011575 -1.1135
0.0081615997 0.011543 -1.1102999
0.0104 0.011592 -1.1151
0.012098 0.01159 -1.1149
0.014022 0.011609 -1.1167001
0.015608 0.011597 -1.1155
0.017424 0.011605 -1.1163
0.019006001 0.011593 -1.1151
0.020703999 0.01159 -1.1149
0.022158001 0.011568 -1.1127
0.023729 0.011555 -1.1115
0.025420999 0.011553 -1.1113
0.027239 0.011561 -1.1121
0.029704999 0.011621 -1.1178
0.031408001 0.011618 -1.1176
0.032846 0.011595 -1.1154
0.034543999 0.011593 -1.1152
0.035700001 0.011549 -1.1109999
0.037528001 0.011557 -1.1117001
0.039221 0.011555 -1.1115
0.041335002 0.011583 -1.1142
0.043317001 0.011601 -1.1160001
0.045017 0.011599 -1.1157
0.046716001 0.011596 -1.1155
0.048562001 0.011604 -1.1162
0.050113 0.011591 -1.115
0.051658999 0.011578 -1.1137
0.053355001 0.011575 -1.1134
0.055050001 0.011572 -1.1131999
0.056901999 0.01158 -1.1138999
0.059071999 0.011608 -1.1166
0.061092 0.011625 -1.1183
0.062795997 0.011623 -1.118
0.064172998 0.011599 -1.1158
0.065871999 0.011596 -1.1155
0.067570999 0.011593 -1.1152
0.069269001 0.01159 -1.1149
0.070967004 0.011587 -1.1145999
0.072835997 0.011594 -1.1153001
0.075055003 0.011622 -1.118
0.076934002 0.011629 -1.1186
0.078460999 0.011616 -1.1174001
0.080163002 0.011613 -1.117
0.081684001 0.011599 -1.1158
0.083383001 0.011596 -1.1154
0.085266002 0.011603 -1.1161
0.086966 0.011599 -1.1158
0.088852003 0.011606 -1.1164
0.090741999 0.011613 -1.1171
0.092442997 0.01161 -1.1168
0.094529003 0.011627 -1.1184
0.096816003 0.011654 -1.1210001
0.098328002 0.01164 -1.1197
0.0010959 0.012515 -1.108
0.0031929 0.012558 -1.1118
0.0050944001 0.012579 -1.1136
0.0071088001 0.01261 -1.1165
0.0088093998 0.012608 -1.1163
0.01029 0.012584 -1.1141
0.011875 0.01257 -1.1129
0.013456 0.012557 -1.1117001
0.015034 0.012544 -1.1105
0.016724 0.012541 -1.1102999
0.018414 0.012539 -1.1101
0.020584 0.012582 -1.1138999
0.022402 0.01259 -1.1147
0.0241 0.012588 -1.1145
0.025922 0.012597 -1.1153001
0.027365999 0.012572 -1.1131001
0.029318999 0.012592 -1.1148
0.030886 0.012578 -1.1136
0.032581002 0.012576 -1.1134
0.034410998 0.012584 -1.1142
0.035836 0.012559 -1.1119
0.037666 0.012568 -1.1127
0.039360002 0.012565 -1.1125
0.041193999 0.012574 -1.1131999
0.043173999 0.012593 -1.115
0.044728 0.012579 -1.1137
0.046569999 0.012588 -1.1145
0.048562001 0.012607 -1.1162
0.050262 0.012604 -1.1159
0.052113 0.012613 -1.1167001
0.052896 0.012543 -1.1105
0.054586001 0.01254 -1.1102
0.056120001 0.012526 -1.109
0.058281001 0.012556 -1.1116
0.060293 0.012575 -1.1133
0.062472999 0.012606 -1.1160001
0.064663 0.012636 -1.1187
